ply
format ascii 1.0
comment PCL generated
element vertex 1333
property float x
property float y
property float z
element camera 0
property float view_px
property float view_py
property float view_pz
property float x_axisx
property float x_axisy
property float x_axisz
property float y_axisx
property float y_axisy
property float y_axisz
property float z_axisx
property float z_axisy
property float z_axisz
property float focal
property float scalex
property float scaley
property float centerx
property float centery
property int viewportx
property int viewporty
property float k1
property float k2
end_header
0.2399824 -0.23280486 -0.14449868
0.22939049 -0.23280486 -0.14756879
0.22939049 -0.24339673 -0.15401602
0.2399824 -0.24339673 -0.14987138
0.21895206 -0.23848456 -0.15416953
0.22939049 -0.24339673 -0.15401602
0.21895206 -0.23280486 -0.15125293
0.21895206 -0.23848456 -0.15416953
0.2120443 -0.23280486 -0.15416953
-0.25446022 -0.24232221 -0.15416953
-0.24417534 -0.23280486 -0.15416953
-0.25446022 -0.23280486 -0.1504854
-0.26505214 -0.23280486 -0.14956436
-0.26505214 -0.24247569 -0.15416953
-0.25446022 -0.23280486 -0.1504854
-0.25446022 -0.23280486 -0.1504854
-0.27549055 -0.23280486 -0.15232745
-0.27549055 -0.23648897 -0.15416953
-0.26505214 -0.23280486 -0.14956436
-0.27886766 -0.23280486 -0.15416953
0.33730516 -0.23280486 -0.15416953
0.33945423 -0.22236642 -0.15416953
0.21895206 -0.22236642 -0.14572671
0.20836015 -0.23019522 -0.15416953
0.20836015 -0.22236642 -0.14941084
0.19822876 -0.22236642 -0.15416953
-0.23342992 -0.2266646 -0.15416953
-0.22514059 -0.22236642 -0.15416953
-0.23342992 -0.22236642 -0.15171346
-0.24402183 -0.22236642 -0.1477223
-0.24402183 -0.23280486 -0.15416953
-0.24402183 -0.23280486 -0.15416953
-0.24402183 -0.23280486 -0.15416953
-0.24402183 -0.22236642 -0.1477223
-0.25446022 -0.23280486 -0.1504854
-0.24417534 -0.23280486 -0.15416953
-0.25446022 -0.22236642 -0.14541969
-0.25446022 -0.23280486 -0.1504854
-0.25446022 -0.22236642 -0.14541969
-0.25446022 -0.23280486 -0.1504854
-0.25446022 -0.22236642 -0.14541969
-0.26505214 -0.23280486 -0.14956436
-0.27549055 -0.22236642 -0.14634076
-0.28608245 -0.22451553 -0.15416953
-0.28608245 -0.22236642 -0.15309501
-0.28746399 -0.22236642 -0.15416953
0.33945423 -0.22236642 -0.15416953
0.34129632 -0.21177453 -0.15416953
0.34206381 -0.21177453 -0.14357764
0.33945423 -0.22236642 -0.15416953
0.20836015 -0.21177453 -0.14511269
0.21895206 -0.22236642 -0.14572671
0.21296534 -0.21177453 -0.14357764
0.20836015 -0.21177453 -0.14511269
0.19792177 -0.2220594 -0.15416953
0.19792177 -0.21177453 -0.14879683
0.19792177 -0.21177453 -0.14879683
0.18732984 -0.21177453 -0.15263447
0.18732984 -0.21499813 -0.15416953
0.18732984 -0.21177453 -0.15263447
0.18118961 -0.21177453 -0.15416953
0.18732984 -0.21499813 -0.15416953
-0.21239959 -0.21607268 -0.15416953
-0.20641287 -0.21177453 -0.15416953
-0.21239959 -0.21177453 -0.15202045
-0.22299153 -0.21177453 -0.14910385
-0.22299153 -0.22113839 -0.15416953
-0.21239959 -0.21177453 -0.15202045
-0.22299153 -0.22113839 -0.15416953
-0.21239959 -0.21607268 -0.15416953
-0.22299153 -0.21177453 -0.14910385
-0.22514059 -0.22236642 -0.15416953
-0.23342992 -0.21177453 -0.14541969
-0.28608245 -0.21177453 -0.14741528
-0.29360422 -0.21177453 -0.15416953
-0.29360422 -0.21177453 -0.15416953
0.34359887 -0.2011826 -0.14357764
0.34206381 -0.2011826 -0.15416953
0.34359887 -0.2011826 -0.14357764
0.19976383 -0.2011826 -0.14357764
0.19792177 -0.2011826 -0.14434516
0.20836015 -0.21177453 -0.14511269
0.19976383 -0.2011826 -0.14357764
0.20836015 -0.21177453 -0.14511269
0.19792177 -0.2011826 -0.14434516
0.19792177 -0.21177453 -0.14879683
0.18732984 -0.2011826 -0.1477223
0.19792177 -0.2011826 -0.14434516
0.18732984 -0.21177453 -0.15263447
0.17689145 -0.20901144 -0.15416953
0.17689145 -0.2011826 -0.15140644
0.17689145 -0.20901144 -0.15416953
0.17689145 -0.2011826 -0.15140644
0.16629954 -0.2011826 -0.15401602
0.16629954 -0.20133612 -0.15416953
0.17689145 -0.2011826 -0.15140644
0.16629954 -0.20133612 -0.15416953
0.17689145 -0.20901144 -0.15416953
0.16599253 -0.2011826 -0.15416953
-0.1913693 -0.20179662 -0.15416953
-0.19060177 -0.2011826 -0.15416953
-0.1913693 -0.2011826 -0.15386254
-0.20196119 -0.2011826 -0.15125293
-0.20196119 -0.20809036 -0.15416953
-0.21239959 -0.2011826 -0.14787582
-0.21239959 -0.21177453 -0.15202045
-0.22299153 -0.2011826 -0.14480567
-0.29652086 -0.2011826 -0.15263447
-0.29652086 -0.20486677 -0.15416953
-0.28792453 -0.2011826 -0.14357764
-0.28792453 -0.2011826 -0.14357764
-0.28608245 -0.20471326 -0.14357764
-0.29360422 -0.21177453 -0.15416953
-0.28608245 -0.20471326 -0.14357764
-0.29728839 -0.2011826 -0.15416953
0.34467342 -0.19059071 -0.14357764
0.34359887 -0.2011826 -0.14357764
0.34252435 -0.19059071 -0.15416953
0.18732984 -0.19059071 -0.14449868
0.18963243 -0.19059071 -0.14357764
0.18732984 -0.19059071 -0.14449868
0.17689145 -0.19059071 -0.14741528
0.17689145 -0.19059071 -0.14741528
0.16629954 -0.19059071 -0.15079239
0.15586114 -0.19396785 -0.15416953
0.15586114 -0.19059071 -0.1529415
0.15110245 -0.19059071 -0.15416953
-0.18077739 -0.19488886 -0.15416953
-0.17325559 -0.19059071 -0.15416953
-0.18077739 -0.19059071 -0.15217397
-0.1913693 -0.19059071 -0.14987138
-0.20196119 -0.19059071 -0.14680123
-0.20196119 -0.19059071 -0.14680123
-0.21239959 -0.19074419 -0.14357764
-0.20196119 -0.19059071 -0.14680123
-0.21239959 -0.19074419 -0.14357764
-0.29130164 -0.19059071 -0.14357764
-0.29652086 -0.19059071 -0.14956436
-0.29866993 -0.19059071 -0.15416953
0.34513396 -0.1801523 -0.14541969
0.34513396 -0.18659955 -0.14357764
0.34175682 -0.1801523 -0.15416953
0.34467342 -0.19059071 -0.14357764
0.18732984 -0.19059071 -0.14449868
0.18732984 -0.19059071 -0.14449868
0.17689145 -0.1801523 -0.14480567
0.18011507 -0.1801523 -0.14357764
0.17689145 -0.19059071 -0.14741528
0.18732984 -0.19059071 -0.14449868
0.17689145 -0.1801523 -0.14480567
0.16629954 -0.1801523 -0.14741528
0.17689145 -0.19059071 -0.14741528
0.16629954 -0.1801523 -0.14741528
0.15586114 -0.1801523 -0.15002489
0.14526923 -0.18613905 -0.15416953
0.14526923 -0.1801523 -0.15217397
0.15586114 -0.19059071 -0.1529415
0.15586114 -0.1801523 -0.15002489
0.14526923 -0.1801523 -0.15217397
0.14526923 -0.1801523 -0.15217397
0.1372869 -0.1801523 -0.15416953
0.14526923 -0.18613905 -0.15416953
-0.15974706 -0.18184087 -0.15416953
-0.15590942 -0.1801523 -0.15416953
-0.15974706 -0.1801523 -0.15355551
-0.17033897 -0.1801523 -0.15155995
-0.17033897 -0.18813461 -0.15416953
-0.18077739 -0.1801523 -0.14833632
-0.1913693 -0.1801523 -0.14526621
-0.29652086 -0.18107334 -0.14357764
-0.29682785 -0.1801523 -0.14357764
-0.299898 -0.1801523 -0.15416953
0.34513396 -0.1695604 -0.14756879
0.34144983 -0.1695604 -0.15416953
0.17689145 -0.17723569 -0.14357764
0.17689145 -0.1801523 -0.14480567
0.18011507 -0.1801523 -0.14357764
0.16890913 -0.1695604 -0.14357764
0.16629954 -0.1695604 -0.14465216
0.16890913 -0.1695604 -0.14357764
0.17689145 -0.1801523 -0.14480567
0.16629954 -0.1695604 -0.14465216
0.15586114 -0.1695604 -0.14680123
0.16629954 -0.1695604 -0.14465216
0.15586114 -0.1695604 -0.14680123
0.14526923 -0.1695604 -0.14925736
0.14526923 -0.1801523 -0.15217397
0.15586114 -0.1695604 -0.14680123
0.1372869 -0.1801523 -0.15416953
0.13483082 -0.17800322 -0.15416953
0.13483082 -0.1695604 -0.15171346
0.12485293 -0.1695604 -0.15416953
-0.13871676 -0.16971391 -0.15416953
-0.13856325 -0.1695604 -0.15416953
-0.13871676 -0.1695604 -0.15401602
-0.14930867 -0.1695604 -0.15217397
-0.14930867 -0.17677516 -0.15416953
-0.15974706 -0.1695604 -0.15002489
-0.17033897 -0.1695604 -0.14741528
-0.18077739 -0.1695604 -0.14419165
-0.29851642 -0.1695604 -0.14357764
-0.299898 -0.1801523 -0.15416953
-0.29682785 -0.1801523 -0.14357764
-0.30081901 -0.1695604 -0.15416953
-0.299898 -0.1801523 -0.15416953
0.34513396 -0.15896848 -0.1484898
0.34160331 -0.15896848 -0.15416953
0.16629954 -0.1695604 -0.14465216
0.16629954 -0.1695604 -0.14465216
0.15586114 -0.15896848 -0.14403814
0.14526923 -0.15896848 -0.14710826
0.13483082 -0.15896848 -0.14895034
0.12423891 -0.16894636 -0.15416953
0.12423891 -0.15896848 -0.15125293
0.11364699 -0.15896848 -0.15401602
0.11364699 -0.1595825 -0.15416953
0.11287948 -0.15896848 -0.15416953
-0.13871676 -0.15896848 -0.15171346
-0.12996691 -0.15896848 -0.15416953
-0.14930867 -0.15896848 -0.14925736
-0.15974706 -0.15896848 -0.14710826
-0.29928395 -0.15896848 -0.14357764
-0.29851642 -0.1695604 -0.14357764
-0.30189356 -0.15896848 -0.15416953
0.34513396 -0.14853007 -0.14726177
0.34175682 -0.14853007 -0.15416953
0.14526923 -0.14853007 -0.14419165
0.13483082 -0.14853007 -0.14680123
0.12423891 -0.14853007 -0.14941084
0.11364699 -0.14853007 -0.15140644
0.10320859 -0.15267473 -0.15416953
0.10320859 -0.14853007 -0.15340203
0.092616685 -0.14853007 -0.15386254
0.092616685 -0.14945111 -0.15416953
0.091388643 -0.14853007 -0.15416953
-0.11768644 -0.15344226 -0.15416953
-0.1086296 -0.14853007 -0.15416953
-0.11768644 -0.14853007 -0.15309501
-0.12827834 -0.14853007 -0.15155995
-0.12827834 -0.15727991 -0.15416953
-0.13871676 -0.14853007 -0.14941084
-0.14930867 -0.14853007 -0.14649424
-0.15974706 -0.14853007 -0.14403814
-0.29974449 -0.14853007 -0.14357764
-0.29928395 -0.15896848 -0.14357764
-0.29974449 -0.14853007 -0.14357764
-0.30143306 -0.14853007 -0.15416953
0.34513396 -0.13793817 -0.14818281
0.34083578 -0.13793817 -0.15416953
0.34513396 -0.14853007 -0.14726177
0.34083578 -0.13793817 -0.15416953
0.34513396 -0.13793817 -0.14818281
0.13483082 -0.13793817 -0.14449868
0.12423891 -0.13793817 -0.14741528
0.11364699 -0.13793817 -0.14941084
0.10320859 -0.13793817 -0.15109941
0.092616685 -0.13793817 -0.15232745
0.08217828 -0.14146882 -0.15416953
0.08217828 -0.13793817 -0.15340203
0.075424023 -0.13793817 -0.15416953
-0.10724805 -0.14730203 -0.15416953
-0.097730674 -0.13793817 -0.15416953
-0.10724805 -0.13793817 -0.15263447
-0.11768644 -0.13793817 -0.15109941
-0.12827834 -0.13793817 -0.14910385
-0.13871676 -0.13793817 -0.14649424
-0.14930867 -0.13793817 -0.14373115
-0.30143306 -0.14853007 -0.15416953
-0.29974449 -0.14853007 -0.14357764
-0.30112603 -0.13793817 -0.15416953
-0.30143306 -0.14853007 -0.15416953
0.34513396 -0.12734625 -0.14649424
0.34083578 -0.13793817 -0.15416953
0.34022176 -0.12734625 -0.15416953
0.34513396 -0.13793817 -0.14818281
0.34513396 -0.12734625 -0.14649424
0.12423891 -0.12734625 -0.14541969
0.11364699 -0.12734625 -0.14695475
0.10320859 -0.12734625 -0.14925736
0.092616685 -0.12734625 -0.15109941
0.08217828 -0.12734625 -0.15202045
0.07158637 -0.13594261 -0.15416953
0.07158637 -0.12734625 -0.15232745
0.061147969 -0.12734625 -0.15355551
0.061147969 -0.13087687 -0.15416953
0.05055606 -0.12734625 -0.15401602
0.05055606 -0.12765327 -0.15416953
0.049942039 -0.12734625 -0.15416953
-0.075625814 -0.12903482 -0.15416953
-0.074397765 -0.12734625 -0.15416953
-0.075625814 -0.12734625 -0.15401602
-0.086217731 -0.12734625 -0.15232745
-0.086217731 -0.13486806 -0.15416953
-0.096656129 -0.12734625 -0.15155995
-0.096656129 -0.13732415 -0.15416953
-0.10724805 -0.12734625 -0.1504854
-0.11768644 -0.12734625 -0.14895034
-0.12827834 -0.12734625 -0.14726177
-0.13871676 -0.12734625 -0.14419165
-0.30020502 -0.12734625 -0.14357764
-0.30112603 -0.13793817 -0.15416953
-0.30020502 -0.12734625 -0.14357764
-0.30051202 -0.12734625 -0.15416953
-0.30112603 -0.13793817 -0.15416953
0.34513396 -0.11675435 -0.14419165
0.34544095 -0.11675435 -0.14357764
0.34513396 -0.12734625 -0.14649424
0.34513396 -0.12734625 -0.14649424
0.34513396 -0.12734625 -0.14649424
0.34022176 -0.12734625 -0.15416953
0.3389937 -0.11675435 -0.15416953
0.34513396 -0.11675435 -0.14419165
0.12423891 -0.11675435 -0.14480567
0.11364699 -0.11675435 -0.14588022
0.10320859 -0.11675435 -0.1477223
0.092616685 -0.11675435 -0.14941084
0.08217828 -0.11675435 -0.15125293
0.07158637 -0.11675435 -0.15171346
0.061147969 -0.11675435 -0.15278798
0.05055606 -0.11675435 -0.15309501
0.041806225 -0.11675435 -0.15416953
-0.065187417 -0.11890343 -0.15416953
-0.059200682 -0.11675435 -0.15416953
-0.065187417 -0.11675435 -0.15386254
-0.075625814 -0.11675435 -0.15340203
-0.086217731 -0.11675435 -0.15155995
-0.096656129 -0.11675435 -0.14941084
-0.10724805 -0.11675435 -0.14941084
-0.11768644 -0.11675435 -0.14756879
-0.12827834 -0.11675435 -0.1455732
-0.29959098 -0.11675435 -0.14357764
-0.30020502 -0.12734625 -0.14357764
-0.29959098 -0.11675435 -0.14357764
-0.29974449 -0.11675435 -0.15416953
0.34544095 -0.11675435 -0.14357764
0.34498045 -0.10631594 -0.14357764
0.34498045 -0.10631594 -0.14357764
0.33853319 -0.10631594 -0.15416953
0.34498045 -0.10631594 -0.14357764
0.11364699 -0.10631594 -0.1455732
0.10320859 -0.10631594 -0.14664775
0.092616685 -0.10631594 -0.14802933
0.08217828 -0.10631594 -0.14971787
0.07158637 -0.10631594 -0.15079239
0.061147969 -0.10631594 -0.15217397
0.05055606 -0.10631594 -0.15263447
0.040117659 -0.11491227 -0.15416953
0.040117659 -0.10631594 -0.15324852
0.030907303 -0.10631594 -0.15416953
-0.065187417 -0.10631594 -0.15355551
-0.060428731 -0.10631594 -0.15416953
-0.075625814 -0.10631594 -0.15263447
-0.086217731 -0.10631594 -0.1509459
-0.096656129 -0.10631594 -0.14925736
-0.10724805 -0.10631594 -0.14756879
-0.11768644 -0.10631594 -0.14603373
-0.12827834 -0.10631594 -0.14388466
-0.29974449 -0.11675435 -0.15416953
-0.29974449 -0.10631594 -0.14357764
-0.29851642 -0.10631594 -0.15416953
-0.29974449 -0.11675435 -0.15416953
0.34283137 -0.095724016 -0.14357764
0.34498045 -0.10631594 -0.14357764
0.33669111 -0.095724016 -0.15416953
0.34283137 -0.095724016 -0.14357764
0.30307332 -0.10631594 -0.1501784
0.11364699 -0.095724016 -0.14449868
0.10320859 -0.095724016 -0.14634076
0.092616685 -0.095724016 -0.14756879
0.08217828 -0.095724016 -0.14895034
0.07158637 -0.095724016 -0.14971787
0.061147969 -0.095724016 -0.15155995
0.05055606 -0.095724016 -0.15248096
0.040117659 -0.095724016 -0.15278798
0.029525749 -0.10324582 -0.15416953
0.029525749 -0.095724016 -0.15370902
0.026148619 -0.095724016 -0.15416953
-0.065187417 -0.095724016 -0.15355551
-0.056130566 -0.095724016 -0.15416953
-0.075625814 -0.095724016 -0.15217397
-0.086217731 -0.095724016 -0.15002489
-0.096656129 -0.095724016 -0.14895034
-0.10724805 -0.095724016 -0.14726177
-0.11768644 -0.095724016 -0.14419165
-0.29928395 -0.095724016 -0.14357764
-0.29974449 -0.10631594 -0.14357764
-0.29820943 -0.095724016 -0.15416953
0.34252435 -0.085132122 -0.14357764
0.34283137 -0.095724016 -0.14357764
0.33546308 -0.085132122 -0.15416953
0.10320859 -0.085132122 -0.14465216
0.092616685 -0.085132122 -0.14649424
0.08217828 -0.085132122 -0.14787582
0.07158637 -0.085132122 -0.14925736
0.061147969 -0.085132122 -0.15109941
0.05055606 -0.085132122 -0.15155995
0.040117659 -0.085132122 -0.15248096
0.029525749 -0.085132122 -0.15340203
0.019087346 -0.089737296 -0.15416953
0.019087346 -0.085132122 -0.15355551
0.014635674 -0.085132122 -0.15416953
-0.03356519 -0.088202238 -0.15416953
-0.032030132 -0.085132122 -0.15416953
-0.03356519 -0.085132122 -0.15386254
-0.044157099 -0.085132122 -0.15370902
-0.044157099 -0.090351313 -0.15416953
-0.0545955 -0.085132122 -0.1529415
-0.0545955 -0.094956517 -0.15416953
-0.065187417 -0.085132122 -0.15202045
-0.075625814 -0.085132122 -0.15079239
-0.086217731 -0.085132122 -0.1501784
-0.096656129 -0.085132122 -0.14956436
-0.10724805 -0.085132122 -0.14741528
-0.11768644 -0.085132122 -0.14449868
-0.29820943 -0.095724016 -0.15416953
-0.29928395 -0.095724016 -0.14357764
-0.29836294 -0.085132122 -0.14357764
-0.29682785 -0.085132122 -0.15416953
0.33546308 -0.085132122 -0.15416953
0.33500254 -0.074540213 -0.15416953
0.30706447 -0.074540213 -0.14357764
0.30307332 -0.074540213 -0.14756879
0.30307332 -0.080373436 -0.14357764
0.10320859 -0.074540213 -0.14511269
0.092616685 -0.074540213 -0.14649424
0.08217828 -0.074540213 -0.1477223
0.07158637 -0.074540213 -0.14925736
0.061147969 -0.074540213 -0.1501784
0.05055606 -0.074540213 -0.15109941
0.040117659 -0.074540213 -0.15202045
0.029525749 -0.074540213 -0.1529415
0.019087346 -0.074540213 -0.15386254
0.016784757 -0.074540213 -0.15416953
-0.03356519 -0.074540213 -0.15386254
-0.026503917 -0.074540213 -0.15416953
-0.044157099 -0.074540213 -0.15324852
-0.0545955 -0.074540213 -0.15248096
-0.065187417 -0.074540213 -0.15202045
-0.075625814 -0.074540213 -0.15079239
-0.086217731 -0.074540213 -0.14910385
-0.096656129 -0.074540213 -0.14833632
-0.10724805 -0.074540213 -0.14695475
-0.11768644 -0.074540213 -0.14388466
-0.29483229 -0.074540213 -0.15416953
-0.29652086 -0.08405757 -0.15416953
-0.29652086 -0.074540213 -0.14664775
-0.29652086 -0.08405757 -0.15416953
-0.29682785 -0.085132122 -0.15416953
-0.29652086 -0.074540213 -0.14664775
-0.29682785 -0.085132122 -0.15416953
-0.29713488 -0.074540213 -0.14357764
-0.29652086 -0.074540213 -0.14664775
-0.29682785 -0.085132122 -0.15416953
-0.29836294 -0.085132122 -0.14357764
-0.29713488 -0.074540213 -0.14357764
0.33945423 -0.064101815 -0.14357764
0.33546308 -0.064101815 -0.15416953
0.33945423 -0.064101815 -0.14357764
0.33500254 -0.074540213 -0.15416953
0.30675745 -0.064101815 -0.14357764
0.30307332 -0.064101815 -0.14695475
0.30706447 -0.074540213 -0.14357764
0.29263493 -0.064101815 -0.15248096
0.10320859 -0.064101815 -0.14465216
0.092616685 -0.064101815 -0.14664775
0.08217828 -0.064101815 -0.1477223
0.07158637 -0.064101815 -0.14864331
0.061147969 -0.064101815 -0.14987138
0.05055606 -0.064101815 -0.15109941
0.040117659 -0.064101815 -0.15217397
0.029525749 -0.064101815 -0.15340203
0.019087346 -0.064101815 -0.15386254
0.008495437 -0.064715832 -0.15416953
0.008495437 -0.064101815 -0.15401602
-0.0019429671 -0.064101815 -0.15416953
-0.0019429671 -0.064101815 -0.15416953
-0.0022499785 -0.064101815 -0.15416953
-0.03356519 -0.067785949 -0.15416953
-0.035253756 -0.064101815 -0.15416953
-0.044157099 -0.064101815 -0.15324852
-0.0545955 -0.064101815 -0.15202045
-0.065187417 -0.064101815 -0.15140644
-0.075625814 -0.064101815 -0.15063891
-0.086217731 -0.064101815 -0.14987138
-0.096656129 -0.064101815 -0.14818281
-0.10724805 -0.064101815 -0.14618725
-0.11768644 -0.064101815 -0.14419165
-0.29421827 -0.064101815 -0.15416953
-0.29652086 -0.068092972 -0.14357764
-0.29713488 -0.074540213 -0.14357764
0.33469555 -0.053509906 -0.15309501
0.33822617 -0.053509906 -0.14357764
0.33469555 -0.057194039 -0.15416953
0.33546308 -0.064101815 -0.15416953
0.33546308 -0.064101815 -0.15416953
0.33377451 -0.053509906 -0.15416953
0.31136265 -0.053509906 -0.14357764
0.30307332 -0.053509906 -0.14987138
0.30675745 -0.064101815 -0.14357764
0.29263493 -0.053509906 -0.1529415
0.10320859 -0.053509906 -0.14495918
0.092616685 -0.053509906 -0.14710826
0.08217828 -0.053509906 -0.1477223
0.07158637 -0.053509906 -0.14925736
0.061147969 -0.053509906 -0.1501784
0.05055606 -0.053509906 -0.15079239
0.040117659 -0.053509906 -0.15202045
0.029525749 -0.053509906 -0.1529415
0.019087346 -0.053509906 -0.15370902
0.008495437 -0.062259734 -0.15416953
0.012793602 -0.053509906 -0.15416953
-0.0019429671 -0.063641295 -0.15416953
-0.02297328 -0.063027278 -0.15416953
-0.016065512 -0.053509906 -0.15416953
-0.02297328 -0.053509906 -0.15355551
-0.03356519 -0.053509906 -0.15370902
-0.03356519 -0.060724676 -0.15416953
-0.044157099 -0.053509906 -0.15309501
-0.0545955 -0.053509906 -0.15232745
-0.065187417 -0.053509906 -0.15186697
-0.075625814 -0.053509906 -0.15079239
-0.086217731 -0.053509906 -0.14925736
-0.096656129 -0.053509906 -0.14756879
-0.10724805 -0.053509906 -0.14572671
-0.2925297 -0.053509906 -0.15416953
0.33469555 -0.042917997 -0.14802933
0.33009037 -0.042917997 -0.15416953
0.30307332 -0.042917997 -0.14710826
0.31136265 -0.053509906 -0.14357764
0.29263493 -0.042917997 -0.15155995
0.11364699 -0.042917997 -0.14373115
0.10320859 -0.042917997 -0.14634076
0.092616685 -0.042917997 -0.14741528
0.08217828 -0.042917997 -0.14925736
0.07158637 -0.042917997 -0.14971787
0.061147969 -0.042917997 -0.1509459
0.05055606 -0.042917997 -0.15155995
0.040117659 -0.042917997 -0.15202045
0.029525749 -0.042917997 -0.15401602
0.019087346 -0.045527607 -0.15416953
0.02384603 -0.042917997 -0.15416953
-0.02297328 -0.043378502 -0.15416953
-0.025122363 -0.042917997 -0.15416953
-0.03356519 -0.042917997 -0.15401602
-0.044157099 -0.042917997 -0.15355551
-0.0545955 -0.042917997 -0.15278798
-0.065187417 -0.042917997 -0.15217397
-0.075625814 -0.042917997 -0.15079239
-0.086217731 -0.042917997 -0.14941084
-0.096656129 -0.042917997 -0.14756879
-0.10724805 -0.042917997 -0.14603373
-0.11768644 -0.042917997 -0.14434516
-0.29237619 -0.042917997 -0.14357764
-0.29068765 -0.042917997 -0.15416953
0.33300698 -0.032326072 -0.14357764
0.32778779 -0.032326072 -0.15416953
0.33300698 -0.032326072 -0.14357764
0.30998108 -0.032326072 -0.14357764
0.30307332 -0.032326072 -0.14910385
0.30998108 -0.032326072 -0.14357764
0.29263493 -0.032326072 -0.15232745
0.11364699 -0.032326072 -0.14603373
0.10320859 -0.032326072 -0.14710826
0.092616685 -0.032326072 -0.14879683
0.08217828 -0.032326072 -0.15002489
0.07158637 -0.032326072 -0.15079239
0.061147969 -0.032326072 -0.15232745
0.05055606 -0.032326072 -0.15232745
0.040117659 -0.032326072 -0.15278798
0.029525749 -0.040308386 -0.15416953
0.031981844 -0.032326072 -0.15416953
-0.03356519 -0.039080337 -0.15416953
-0.034946743 -0.032326072 -0.15416953
-0.044157099 -0.032326072 -0.15324852
-0.0545955 -0.032326072 -0.15248096
-0.065187417 -0.032326072 -0.15186697
-0.075625814 -0.032326072 -0.15033188
-0.086217731 -0.032326072 -0.14910385
-0.096656129 -0.032326072 -0.14787582
-0.10724805 -0.032326072 -0.14588022
-0.11768644 -0.032326072 -0.14526621
-0.29068765 -0.032326072 -0.14357764
-0.29237619 -0.042917997 -0.14357764
-0.28884557 -0.032326072 -0.15416953
0.32778779 -0.032326072 -0.15416953
0.3287088 -0.021887675 -0.14357764
0.33300698 -0.032326072 -0.14357764
0.32471767 -0.021887675 -0.15416953
0.3287088 -0.021887675 -0.14357764
0.3053759 -0.021887675 -0.14357764
0.30307332 -0.021887675 -0.14588022
0.3053759 -0.021887675 -0.14357764
0.12423891 -0.021887675 -0.14373115
0.11364699 -0.021887675 -0.14618725
0.10320859 -0.021887675 -0.14895034
0.092616685 -0.021887675 -0.15002489
0.08217828 -0.021887675 -0.1504854
0.07158637 -0.021887675 -0.15202045
0.061147969 -0.021887675 -0.15309501
0.05055606 -0.021887675 -0.15386254
0.040117659 -0.021887675 -0.15370902
0.03812208 -0.021887675 -0.15416953
-0.044157099 -0.025111318 -0.15416953
-0.046306185 -0.021887675 -0.15416953
-0.0545955 -0.021887675 -0.15263447
-0.065187417 -0.021887675 -0.15232745
-0.075625814 -0.021887675 -0.1504854
-0.086217731 -0.021887675 -0.14925736
-0.096656129 -0.021887675 -0.14818281
-0.10724805 -0.021887675 -0.14664775
-0.11768644 -0.021887675 -0.14495918
-0.28393337 -0.021887675 -0.15416953
-0.28608245 -0.02572532 -0.15416953
-0.28608245 -0.021887675 -0.14618725
-0.28608245 -0.02572532 -0.15416953
-0.28884557 -0.032326072 -0.15416953
-0.28608245 -0.021887675 -0.14618725
-0.28884557 -0.032326072 -0.15416953
-0.28669649 -0.021887675 -0.14357764
-0.28608245 -0.021887675 -0.14618725
-0.28884557 -0.032326072 -0.15416953
-0.28669649 -0.021887675 -0.14357764
0.32471767 -0.021887675 -0.15416953
0.32410362 -0.020966649 -0.15416953
0.32272211 -0.011295766 -0.14357764
0.32410362 -0.012830839 -0.14357764
0.31857744 -0.011295766 -0.15416953
0.30307332 -0.013905376 -0.14357764
0.30169177 -0.011295766 -0.14357764
0.29263493 -0.011295766 -0.14680123
0.30169177 -0.011295766 -0.14357764
0.12423891 -0.011295766 -0.14403814
0.11364699 -0.011295766 -0.14664775
0.10320859 -0.011295766 -0.1501784
0.092616685 -0.011295766 -0.1509459
0.08217828 -0.011295766 -0.15217397
0.07158637 -0.011295766 -0.15248096
0.061147969 -0.015286922 -0.15416953
0.06391108 -0.011295766 -0.15416953
0.05055606 -0.02019912 -0.15416953
0.040117659 -0.020352617 -0.15416953
-0.0545955 -0.014826417 -0.15416953
-0.059507698 -0.011295766 -0.15416953
-0.065187417 -0.011295766 -0.15324852
-0.075625814 -0.011295766 -0.15202045
-0.086217731 -0.011295766 -0.15125293
-0.096656129 -0.011295766 -0.14956436
-0.10724805 -0.011295766 -0.14787582
-0.11768644 -0.011295766 -0.14664775
-0.27948171 -0.011295766 -0.15416953
0.31366524 -0.00070387125 -0.14603373
0.31504679 -0.00070387125 -0.14357764
0.31366524 -0.0050020218 -0.15416953
0.32272211 -0.011295766 -0.14357764
0.30967408 -0.00070387125 -0.15416953
0.29585853 -0.00070387125 -0.14357764
0.29263493 -0.00070387125 -0.14511269
0.28204301 -0.00070387125 -0.14388466
0.28204301 -0.00085736811 -0.14357764
0.28987181 -0.011295766 -0.14357764
0.29263493 -0.011295766 -0.14680123
0.29263493 -0.00070387125 -0.14511269
0.29263493 -0.011295766 -0.14680123
0.28204301 -0.00085736811 -0.14357764
0.2818895 -0.00070387125 -0.14357764
0.12423891 -0.00070387125 -0.14511269
0.11364699 -0.00070387125 -0.1484898
0.10320859 -0.00070387125 -0.15186697
0.092616685 -0.00070387125 -0.15324852
0.08217828 -0.00085736811 -0.15416953
0.0826388 -0.00070387125 -0.15416953
0.07158637 -0.0042344928 -0.15416953
-0.065187417 -0.0082256496 -0.15416953
-0.075625814 -0.00085736811 -0.15416953
-0.075932831 -0.00070387125 -0.15416953
-0.086217731 -0.00070387125 -0.1529415
-0.086217731 -0.00070387125 -0.1529415
-0.096656129 -0.00070387125 -0.15140644
-0.096656129 -0.00070387125 -0.15140644
-0.10724805 -0.00070387125 -0.14971787
-0.11768644 -0.00070387125 -0.1484898
-0.12827834 -0.00070387125 -0.14634076
-0.12827834 -0.00070387125 -0.14634076
-0.11768644 -0.00070387125 -0.1484898
-0.12827834 -0.00070387125 -0.14634076
-0.13871676 -0.00070387125 -0.14434516
-0.26996434 -0.00070387125 -0.15416953
-0.27549055 -0.0065370947 -0.15416953
0.31366524 0.00067768991 -0.14357764
0.30307332 0.0046688467 -0.15416953
0.31366524 0.00067768991 -0.14357764
0.30307332 0.0046688467 -0.15416953
0.29263493 -0.00070387125 -0.14511269
0.29478401 0.0098880529 -0.15416953
0.29908216 0.0098880529 -0.14357764
0.29263493 0.0035943091 -0.14357764
0.29263493 -0.00070387125 -0.14511269
0.30307332 0.0046688467 -0.15416953
0.29478401 0.0098880529 -0.15416953
0.30307332 0.006817922 -0.14357764
0.29263493 -0.00070387125 -0.14511269
0.29585853 -0.00070387125 -0.14357764
0.29263493 -0.00070387125 -0.14511269
0.30307332 0.0046688467 -0.15416953
0.29263493 -0.00070387125 -0.14511269
0.28204301 0.00052419305 -0.14357764
0.28204301 0.00052419305 -0.14357764
0.27145109 0.0098880529 -0.15401602
0.27175811 0.0098880529 -0.15416953
0.27145109 0.0097345412 -0.15416953
0.14526923 0.0098880529 -0.14480567
0.13483082 0.0098880529 -0.14756879
0.12423891 -0.00070387125 -0.14511269
0.13022564 -0.00070387125 -0.14357764
0.12423891 0.0098880529 -0.14956436
0.13483082 0.0098880529 -0.14756879
0.11364699 0.0098880529 -0.15248096
0.11364699 -0.00070387125 -0.1484898
0.10320859 0.0057433844 -0.15416953
0.10320859 -0.00070387125 -0.15186697
0.10812079 0.0098880529 -0.15416953
0.10320859 0.0057433844 -0.15416953
0.10320859 0.0057433844 -0.15416953
0.092616685 0.0017522424 -0.15416953
-0.075932831 -0.00070387125 -0.15416953
-0.086217731 0.0032873005 -0.15416953
-0.086217731 -0.00070387125 -0.1529415
-0.086217731 -0.00070387125 -0.1529415
-0.096656129 -0.00070387125 -0.15140644
-0.096656129 0.0083529949 -0.15416953
-0.099112228 0.0098880529 -0.15416953
-0.10724805 0.0098880529 -0.15278798
-0.096656129 -0.00070387125 -0.15140644
-0.10724805 -0.00070387125 -0.14971787
-0.11768644 0.0098880529 -0.15248096
-0.11768644 -0.00070387125 -0.1484898
-0.10724805 -0.00070387125 -0.14971787
-0.10724805 0.0098880529 -0.15278798
-0.11768644 0.0098880529 -0.15248096
-0.12827834 0.0098880529 -0.14925736
-0.12827834 -0.00070387125 -0.14634076
-0.13871676 0.0098880529 -0.1484898
-0.13871676 -0.00070387125 -0.14434516
-0.12827834 -0.00070387125 -0.14634076
-0.14930867 0.0098880529 -0.14680123
-0.14930867 -0.00039684772 -0.14357764
-0.14777361 -0.00070387125 -0.14357764
-0.14930867 0.0098880529 -0.14680123
-0.14777361 -0.00070387125 -0.14357764
-0.13871676 0.0098880529 -0.1484898
-0.13871676 -0.00070387125 -0.14434516
-0.15974706 0.0098880529 -0.14495918
-0.15974706 0.006050393 -0.14357764
-0.14930867 -0.00039684772 -0.14357764
-0.14930867 0.0098880529 -0.14680123
-0.17033897 0.0098880529 -0.14403814
-0.17033897 0.0098880529 -0.14403814
-0.15974706 0.006050393 -0.14357764
-0.15974706 0.0098880529 -0.14495918
-0.23342992 0.0098880529 -0.14541969
-0.23342992 0.0089670122 -0.14357764
-0.23342992 0.0089670122 -0.14357764
-0.24233326 0.0098880529 -0.15416953
-0.24402183 0.0092740208 -0.15416953
-0.24233326 0.0098880529 -0.15416953
-0.25446022 0.0077389628 -0.15416953
-0.26505214 0.0032873005 -0.15416953
-0.26505214 0.0026732683 -0.14357764
-0.26505214 0.0032873005 -0.15416953
-0.26888978 -0.00070387125 -0.14357764
-0.26505214 0.0026732683 -0.14357764
-0.26505214 0.0032873005 -0.15416953
0.29263493 0.011269599 -0.15416953
0.29908216 0.0098880529 -0.14357764
0.29263493 0.011269599 -0.15416953
0.28204301 0.011883631 -0.15416953
0.27145109 0.0098880529 -0.15416953
0.2610127 0.015414268 -0.15416953
0.25042078 0.014339715 -0.15416953
0.2399824 0.016028285 -0.15416953
0.2399824 0.016028285 -0.15416953
0.22939049 0.016488805 -0.15416953
0.21895206 0.019098401 -0.15416953
0.21572845 0.02032645 -0.15416953
0.20836015 0.02032645 -0.14802933
0.19792177 0.02032645 -0.1477223
0.18732984 0.02032645 -0.1509459
0.17689145 0.02032645 -0.15232745
0.17121172 0.02032645 -0.15416953
0.16629954 0.018637881 -0.15416953
0.15586114 0.017870352 -0.15416953
0.15586114 0.010809079 -0.14357764
0.15079543 0.0098880529 -0.14357764
0.14526923 0.0098880529 -0.14480567
0.14526923 0.017102823 -0.15416953
0.14526923 0.0098880529 -0.14480567
0.13483082 0.0098880529 -0.14756879
0.13483082 0.016028285 -0.15416953
0.12423891 0.0098880529 -0.14956436
0.12423891 0.0098880529 -0.14956436
0.12423891 0.013572186 -0.15416953
0.11364699 0.0098880529 -0.15248096
0.11364699 0.01173012 -0.15416953
0.11364699 0.0098880529 -0.15248096
0.11364699 0.01173012 -0.15416953
0.10812079 0.0098880529 -0.15416953
-0.10724805 0.011423096 -0.15416953
-0.10724805 0.0098880529 -0.15278798
-0.10724805 0.0098880529 -0.15278798
-0.10724805 0.011423096 -0.15416953
-0.11768644 0.01173012 -0.15416953
-0.11768644 0.01173012 -0.15416953
-0.12827834 0.0098880529 -0.14925736
-0.12827834 0.01387921 -0.15416953
-0.12827834 0.0098880529 -0.14925736
-0.12827834 0.01387921 -0.15416953
-0.13871676 0.0098880529 -0.1484898
-0.12827834 0.01387921 -0.15416953
-0.13871676 0.015107244 -0.15416953
-0.13871676 0.015107244 -0.15416953
-0.14930867 0.0098880529 -0.14680123
-0.13871676 0.015107244 -0.15416953
-0.14930867 0.016488805 -0.15416953
-0.14930867 0.016488805 -0.15416953
-0.15974706 0.0098880529 -0.14495918
-0.14930867 0.016488805 -0.15416953
-0.15974706 0.017563343 -0.15416953
-0.15974706 0.017563343 -0.15416953
-0.17033897 0.0098880529 -0.14403814
-0.15974706 0.017563343 -0.15416953
-0.17033897 0.016488805 -0.15416953
-0.17954934 0.0098880529 -0.14357764
-0.17033897 0.016488805 -0.15416953
-0.18077739 0.0098880529 -0.14357764
-0.18077739 0.015874773 -0.15416953
-0.18077739 0.0098880529 -0.14357764
-0.1913693 0.015874773 -0.15416953
-0.20196119 0.015260756 -0.15416953
-0.21239959 0.015107244 -0.15416953
-0.22299153 0.014800236 -0.15416953
-0.22299153 0.01265116 -0.14357764
-0.23174134 0.0098880529 -0.14357764
-0.23342992 0.0098880529 -0.14541969
-0.23342992 0.012344137 -0.15416953
-0.23342992 0.0098880529 -0.14541969
0.20836015 0.022782549 -0.15416953
0.19792177 0.022629037 -0.15416953
0.18732984 0.022168532 -0.15416953
0.17689145 0.0215545 -0.15416953
0.18732984 0.12593853 -0.14419165
0.17689145 0.12593853 -0.14572671
0.16629954 0.12593853 -0.14649424
0.15586114 0.12593853 -0.14895034
0.14526923 0.12593853 -0.15002489
0.13483082 0.12593853 -0.15140644
0.12423891 0.12593853 -0.15248096
0.12024776 0.12593853 -0.15416953
0.11364699 0.12563153 -0.15416953
0.10320859 0.12593853 -0.15416953
0.092616685 0.12547801 -0.15416953
0.08217828 0.12517101 -0.15416953
0.07158637 0.12593853 -0.15309501
0.07158637 0.12578502 -0.15416953
0.076498568 0.12593853 -0.14357764
0.070818849 0.12593853 -0.15416953
0.25042078 0.13653044 -0.14419165
0.2399824 0.13223228 -0.14357764
0.2399824 0.13653044 -0.14818281
0.22939049 0.13653044 -0.15002489
0.22939049 0.13653044 -0.15002489
0.21895206 0.13653044 -0.15401602
0.21895206 0.13653044 -0.15401602
0.21895206 0.13653044 -0.15401602
0.21849155 0.13653044 -0.15416953
0.20836015 0.13422786 -0.15416953
0.21849155 0.13653044 -0.15416953
0.20836015 0.13422786 -0.15416953
0.19792177 0.13299981 -0.15416953
0.18732984 0.13100423 -0.15416953
0.17689145 0.12992969 -0.15416953
0.16629954 0.12946917 -0.15416953
0.15586114 0.12808761 -0.15416953
0.14526923 0.12732008 -0.15416953
0.13483082 0.12670606 -0.15416953
0.12423891 0.12624554 -0.15416953
0.07158637 0.12670606 -0.14357764
0.061147969 0.12701307 -0.15416953
0.07158637 0.12670606 -0.14357764
0.061147969 0.12839463 -0.14357764
0.05055606 0.12685958 -0.15416953
0.061147969 0.12701307 -0.15416953
0.040117659 0.12747359 -0.15416953
0.029525749 0.12885514 -0.15416953
0.019087346 0.12962267 -0.15416953
0.008495437 0.12900865 -0.15416953
-0.0019429671 0.12962267 -0.15416953
-0.012534876 0.12916216 -0.15416953
-0.012534876 0.12916216 -0.15416953
-0.02297328 0.12885514 -0.15416953
-0.02297328 0.12885514 -0.15416953
-0.03356519 0.12931566 -0.15416953
-0.02297328 0.13008319 -0.14357764
-0.03356519 0.1302367 -0.14357764
-0.02297328 0.12885514 -0.15416953
-0.02297328 0.13008319 -0.14357764
-0.044157099 0.12992969 -0.15416953
-0.044157099 0.1303902 -0.14357764
-0.03356519 0.1302367 -0.14357764
-0.0545955 0.12916216 -0.15416953
-0.0545955 0.12946917 -0.14357764
-0.065187417 0.12824112 -0.15416953
-0.065187417 0.12824112 -0.14357764
-0.075625814 0.12793411 -0.15416953
-0.086217731 0.12916216 -0.15416953
-0.096656129 0.12962267 -0.15416953
-0.10724805 0.1302367 -0.15416953
-0.11768644 0.1303902 -0.15416953
-0.12827834 0.13069722 -0.15416953
-0.13871676 0.12992969 -0.15416953
-0.14930867 0.12992969 -0.15416953
-0.13871676 0.12992969 -0.15416953
-0.15974706 0.1302367 -0.15416953
-0.17033897 0.13100423 -0.15416953
-0.17033897 0.13100423 -0.15416953
-0.18077739 0.13146475 -0.15416953
-0.1913693 0.13315332 -0.15416953
-0.20196119 0.13514888 -0.15416953
-0.1913693 0.12732008 -0.14357764
-0.20196119 0.12946917 -0.14357764
-0.1913693 0.13315332 -0.15416953
-0.20794794 0.13653044 -0.15416953
-0.20196119 0.13514888 -0.15416953
-0.21239959 0.13653044 -0.15217397
-0.20196119 0.13514888 -0.15416953
-0.21239959 0.13131124 -0.14357764
-0.21239959 0.13653044 -0.15217397
-0.21239959 0.13131124 -0.14357764
-0.22299153 0.1328463 -0.14357764
-0.22299153 0.13653044 -0.14971787
-0.21239959 0.13131124 -0.14357764
-0.21239959 0.13131124 -0.14357764
-0.23342992 0.13653044 -0.14603373
-0.22299153 0.1328463 -0.14357764
-0.22299153 0.1328463 -0.14357764
-0.22299153 0.13653044 -0.14971787
-0.23342992 0.13484187 -0.14357764
0.2610127 0.14696884 -0.14695475
0.25042078 0.14696884 -0.15125293
0.2399824 0.14543378 -0.15416953
0.24243848 0.14696884 -0.15416953
0.22939049 0.14190315 -0.15416953
0.21895206 0.13653044 -0.15401602
0.21895206 0.13653044 -0.15401602
0.21895206 0.13668394 -0.15416953
0.21895206 0.13653044 -0.15401602
0.21849155 0.13653044 -0.15416953
-0.21239959 0.13775849 -0.15416953
-0.21239959 0.13653044 -0.15217397
-0.22299153 0.13653044 -0.14971787
-0.22299153 0.14021458 -0.15416953
-0.23342992 0.14512677 -0.15416953
-0.23680703 0.14696884 -0.15416953
-0.24402183 0.14696884 -0.15125293
-0.25446022 0.14696884 -0.14726177
0.27145109 0.15756075 -0.14465216
0.2610127 0.15756075 -0.14910385
0.25042078 0.15756075 -0.15340203
0.24857871 0.15756075 -0.15416953
-0.24402183 0.15648621 -0.15416953
-0.25446022 0.15756075 -0.14941084
-0.24463585 0.15756075 -0.15416953
-0.26505214 0.15756075 -0.14465216
0.27145109 0.16815266 -0.14588022
0.2610127 0.16815266 -0.1501784
0.25042078 0.16001685 -0.15416953
0.25379795 0.16815266 -0.15416953
-0.25446022 0.16815266 -0.14987138
-0.24617091 0.16815266 -0.15416953
-0.26505214 0.16815266 -0.14449868
0.27145109 0.17874457 -0.14465216
0.2610127 0.17874457 -0.14787582
0.27145109 0.17874457 -0.14465216
0.2610127 0.17874457 -0.14787582
0.25042078 0.17091578 -0.15416953
0.25042078 0.17874457 -0.15063891
0.2610127 0.17874457 -0.14787582
0.25042078 0.17874457 -0.15063891
0.24259199 0.17874457 -0.15416953
-0.25446022 0.17874457 -0.1477223
-0.24417534 0.17874457 -0.15416953
-0.26443812 0.17874457 -0.14357764
0.27145109 0.17874457 -0.14465216
0.27421421 0.17874457 -0.14357764
0.27145109 0.17874457 -0.14465216
0.2610127 0.17874457 -0.14787582
0.2610127 0.17874457 -0.14787582
0.25686803 0.18918298 -0.14357764
0.2610127 0.17874457 -0.14787582
0.25042078 0.18918298 -0.14618725
0.25042078 0.17874457 -0.15063891
0.24259199 0.17874457 -0.15416953
0.2399824 0.17981912 -0.15416953
0.2399824 0.18918298 -0.14802933
0.2399824 0.17981912 -0.15416953
0.25042078 0.18918298 -0.14618725
0.2399824 0.18918298 -0.14802933
0.22939049 0.18396378 -0.15416953
0.22939049 0.18918298 -0.15033188
0.2399824 0.18918298 -0.14802933
0.2399824 0.17981912 -0.15416953
0.21895206 0.18887597 -0.15416953
0.21895206 0.18918298 -0.15386254
0.22939049 0.18918298 -0.15033188
0.21895206 0.18887597 -0.15416953
0.22939049 0.18918298 -0.15033188
0.21833806 0.18918298 -0.15416953
0.21895206 0.18887597 -0.15416953
-0.23158784 0.18918298 -0.15416953
-0.23342992 0.18657337 -0.15416953
-0.23342992 0.18918298 -0.15278798
-0.24402183 0.17889808 -0.15416953
-0.24402183 0.18918298 -0.1484898
-0.23342992 0.18918298 -0.15278798
-0.23342992 0.18918298 -0.15278798
-0.23342992 0.18657337 -0.15416953
-0.24402183 0.18918298 -0.1484898
-0.24402183 0.17889808 -0.15416953
-0.24417534 0.17874457 -0.15416953
-0.24402183 0.18918298 -0.1484898
-0.25446022 0.18918298 -0.14373115
-0.25446022 0.18918298 -0.14373115
-0.25446022 0.18918298 -0.14373115
0.25042078 0.18918298 -0.14618725
0.25042078 0.19209959 -0.14357764
0.25042078 0.19209959 -0.14357764
0.2399824 0.1947092 -0.14357764
0.2399824 0.18918298 -0.14802933
0.23000449 0.19977489 -0.14357764
0.2399824 0.18918298 -0.14802933
0.22939049 0.19977489 -0.14388466
0.23000449 0.19977489 -0.14357764
0.22939049 0.18918298 -0.15033188
0.22939049 0.19977489 -0.14388466
0.21895206 0.19977489 -0.1455732
0.20836015 0.19286712 -0.15416953
0.20836015 0.19977489 -0.1484898
0.19792177 0.19501621 -0.15416953
0.19792177 0.19977489 -0.1501784
0.19792177 0.19501621 -0.15416953
0.18732984 0.19793281 -0.15416953
0.18732984 0.19977489 -0.15248096
0.18732984 0.19793281 -0.15416953
0.19792177 0.19977489 -0.1501784
0.19792177 0.19501621 -0.15416953
0.17919403 0.19977489 -0.15416953
0.18732984 0.19793281 -0.15416953
-0.21623726 0.19977489 -0.15416953
-0.22299153 0.19440219 -0.15416953
-0.22299153 0.19977489 -0.1501784
-0.23342992 0.18918298 -0.15278798
-0.23158784 0.18918298 -0.15416953
-0.23342992 0.19977489 -0.14649424
-0.24402183 0.18918298 -0.1484898
0.22939049 0.19977489 -0.14388466
0.22939049 0.2000819 -0.14357764
0.22939049 0.19977489 -0.14388466
0.21895206 0.20177047 -0.14357764
0.20836015 0.20438007 -0.14357764
0.20836015 0.20438007 -0.14357764
0.19792177 0.19977489 -0.1501784
0.17689145 0.2002354 -0.15416953
0.16629954 0.20223099 -0.15416953
0.16629954 0.2103668 -0.14434516
0.17689145 0.20729667 -0.14357764
0.17689145 0.2002354 -0.15416953
0.16629954 0.20223099 -0.15416953
0.15586114 0.20361254 -0.15416953
0.15586114 0.2103668 -0.14526621
0.16629954 0.2103668 -0.14434516
0.16629954 0.2103668 -0.14434516
0.16629954 0.20223099 -0.15416953
0.14526923 0.20453358 -0.15416953
0.14526923 0.2103668 -0.14802933
0.13483082 0.20468707 -0.15416953
0.13483082 0.2103668 -0.14941084
0.14526923 0.2103668 -0.14802933
0.13483082 0.20468707 -0.15416953
0.12423891 0.20576161 -0.15416953
0.12423891 0.2103668 -0.14987138
0.12423891 0.20576161 -0.15416953
0.13483082 0.2103668 -0.14941084
0.13483082 0.20468707 -0.15416953
0.11364699 0.20530111 -0.15416953
0.11364699 0.2103668 -0.1504854
0.12423891 0.20576161 -0.15416953
0.10320859 0.20714317 -0.15416953
0.10320859 0.2103668 -0.15171346
0.0981429 0.2103668 -0.15416953
-0.17617221 0.2103668 -0.15416953
-0.18077739 0.20867823 -0.15416953
-0.18077739 0.2103668 -0.15263447
-0.1913693 0.2077572 -0.15416953
-0.1913693 0.2103668 -0.15202045
-0.20196119 0.20514759 -0.15416953
-0.20196119 0.2103668 -0.14910385
-0.21239959 0.20223099 -0.15416953
-0.21239959 0.2103668 -0.14618725
0.16629954 0.2103668 -0.14434516
0.16629954 0.21098082 -0.14357764
0.16629954 0.21098082 -0.14357764
0.15586114 0.21174835 -0.14357764
0.14526923 0.21389744 -0.14357764
0.15586114 0.2103668 -0.14526621
0.14526923 0.2103668 -0.14802933
0.12423891 0.215893 -0.14357764
0.12423891 0.2103668 -0.14987138
0.11364699 0.21880962 -0.14357764
0.11364699 0.21880962 -0.14357764
0.11364699 0.2103668 -0.1504854
0.10320859 0.22095871 -0.1455732
0.10980935 0.22095871 -0.14357764
0.11364699 0.2103668 -0.1504854
0.092616685 0.21236238 -0.15416953
0.092616685 0.22095871 -0.14634076
0.08217828 0.21389744 -0.15416953
0.08217828 0.22095871 -0.14802933
0.07158637 0.21543249 -0.15416953
0.07158637 0.22095871 -0.14956436
0.061147969 0.21374393 -0.15416953
0.061147969 0.22095871 -0.14864331
-0.061349764 0.22095871 -0.15416953
-0.065187417 0.22034469 -0.15416953
-0.065187417 0.22095871 -0.15370902
-0.066261955 0.22095871 -0.15416953
-0.065187417 0.22034469 -0.15416953
-0.084989682 0.22095871 -0.15416953
-0.086217731 0.22034469 -0.15416953
-0.086217731 0.22095871 -0.15355551
-0.096656129 0.21911663 -0.15416953
-0.096656129 0.22095871 -0.15248096
-0.10724805 0.21927014 -0.15416953
-0.10724805 0.22095871 -0.15263447
-0.11768644 0.22003767 -0.15416953
-0.11768644 0.22095871 -0.15324852
-0.11768644 0.22003767 -0.15416953
-0.12827834 0.21650703 -0.15416953
-0.12827834 0.22095871 -0.14941084
-0.13871676 0.21635354 -0.15416953
-0.13871676 0.22095871 -0.14895034
-0.14930867 0.21466497 -0.15416953
-0.14930867 0.22095871 -0.14541969
-0.15974706 0.21451145 -0.15416953
-0.15974706 0.22095871 -0.14710826
-0.17033897 0.21190186 -0.15416953
0.10320859 0.22095871 -0.1455732
0.10320859 0.22264728 -0.14357764
0.10980935 0.22095871 -0.14357764
0.10320859 0.22264728 -0.14357764
0.10320859 0.22095871 -0.1455732
0.08217828 0.22510336 -0.14357764
0.07158637 0.22525688 -0.14357764
0.061147969 0.22556388 -0.14357764
-0.024815351 0.23139711 -0.15416953
-0.03356519 0.23032257 -0.15416953
-0.03356519 0.23139711 -0.15324852
-0.044157099 0.22433583 -0.15416953
-0.044157099 0.23139711 -0.14756879
-0.0545955 0.22187975 -0.15416953
-0.0545955 0.23139711 -0.14664775
-0.044157099 0.23139711 -0.14756879
-0.044157099 0.22433583 -0.15416953
-0.0545955 0.23139711 -0.14664775
-0.061349764 0.22095871 -0.15416953
-0.065187417 0.22095871 -0.15370902
-0.065187417 0.23139711 -0.14603373
-0.065187417 0.22095871 -0.15370902
-0.065187417 0.22095871 -0.15370902
-0.075625814 0.22356831 -0.15416953
-0.075625814 0.23139711 -0.14680123
-0.065187417 0.23139711 -0.14603373
-0.02297328 0.24198902 -0.14941084
-0.02297328 0.23185763 -0.15416953
-0.044157099 0.23139711 -0.14756879
-0.0545955 0.23431373 -0.14357764
-0.044157099 0.23139711 -0.14756879
-0.0545955 0.23431373 -0.14357764
-0.065187417 0.2335462 -0.14357764
-0.0545955 0.23139711 -0.14664775
0.029525749 0.24198902 -0.14634076
0.029525749 0.24413809 -0.14357764
0.030139774 0.24198902 -0.14357764
0.019087346 0.25196689 -0.15416953
0.019240852 0.25258094 -0.15416953
0.019087346 0.24644068 -0.14357764
0.023078501 0.25258094 -0.14357764
0.029525749 0.24198902 -0.14634076
0.025688101 0.24198902 -0.14357764
0.029525749 0.24413809 -0.14357764
0.008495437 0.24413809 -0.15416953
0.019087346 0.25304145 -0.15416953
0.019087346 0.26194477 -0.14357764
0.019087346 0.26194477 -0.14357764
0.008495437 0.25672558 -0.15416953
0.008495437 0.2573396 -0.14357764
0.019087346 0.25304145 -0.15416953
-0.0019429671 0.25258094 -0.15202045
-0.0019429671 0.25826064 -0.14357764
0.002048187 0.25258094 -0.15416953
0.002048187 0.25258094 -0.15416953
0.4188168 0.77803177 -0.15416953
0.4212729 0.78018081 -0.15416953
0.4188168 0.77741772 -0.14357764
0.4188168 0.77803177 -0.15416953
0.41513264 0.78018081 -0.15416953
0.30307332 -0.28914151 -0.16460794
0.30875304 -0.28561088 -0.16460794
0.30307332 -0.28561088 -0.16199833
0.29263493 -0.28561088 -0.16061679
0.29263493 -0.29175112 -0.16460794
0.28204301 -0.28561088 -0.16061679
0.28204301 -0.29297915 -0.16460794
0.27145109 -0.28561088 -0.16169131
0.27145109 -0.29021603 -0.16460794
0.27145109 -0.29021603 -0.16460794
0.27145109 -0.28561088 -0.16169131
0.26208723 -0.28561088 -0.16460794
0.27145109 -0.29021603 -0.16460794
0.31366524 -0.28269428 -0.16460794
0.32195455 -0.27501896 -0.16460794
0.31366524 -0.27501896 -0.1583142
0.30307332 -0.27501896 -0.15524408
0.30307332 -0.27501896 -0.15524408
0.29601204 -0.27501896 -0.15416953
0.29263493 -0.27578652 -0.15416953
0.28204301 -0.27563298 -0.15416953
0.27943343 -0.27501896 -0.15416953
0.27145109 -0.27501896 -0.15555111
0.27145109 -0.27501896 -0.15555111
0.26208723 -0.28561088 -0.16460794
0.27145109 -0.28561088 -0.16169131
0.2610127 -0.28499684 -0.16460794
0.2610127 -0.27501896 -0.15877473
0.27145109 -0.27501896 -0.15555111
0.25042078 -0.27501896 -0.16199833
0.25042078 -0.27947062 -0.16460794
0.24366653 -0.27501896 -0.16460794
0.32410362 -0.27240938 -0.16460794
0.32947636 -0.26458055 -0.16460794
0.32410362 -0.26458055 -0.15693265
0.29601204 -0.27501896 -0.15416953
0.27145109 -0.27271637 -0.15416953
0.27145109 -0.27501896 -0.15555111
0.27943343 -0.27501896 -0.15416953
0.27145109 -0.27501896 -0.15555111
0.25042078 -0.26458055 -0.15723968
0.2399824 -0.27271637 -0.16460794
0.2399824 -0.26458055 -0.16015628
0.22939049 -0.26458055 -0.16430092
0.22939049 -0.26504111 -0.16460794
0.22877645 -0.26458055 -0.16460794
0.32947636 -0.26458055 -0.16460794
0.33438852 -0.25398865 -0.16460794
0.2399824 -0.25398865 -0.15539759
0.22939049 -0.25398865 -0.15877473
0.21895206 -0.2570588 -0.16460794
0.21895206 -0.25398865 -0.1629194
0.21373287 -0.25398865 -0.16460794
-0.25446022 -0.25997537 -0.16460794
-0.2460174 -0.25398865 -0.16460794
-0.25446022 -0.25398865 -0.16138431
-0.26505214 -0.25398865 -0.16184482
-0.26505214 -0.25905433 -0.16460794
-0.27549055 -0.25398865 -0.16430092
-0.27549055 -0.25444916 -0.16460794
-0.27549055 -0.25444916 -0.16460794
-0.27610457 -0.25398865 -0.16460794
0.33469555 -0.25337464 -0.16460794
0.33715165 -0.24339673 -0.16460794
0.33469555 -0.24339673 -0.15539759
0.33469555 -0.25337464 -0.16460794
0.33469555 -0.24339673 -0.15539759
0.33438852 -0.25398865 -0.16460794
0.33438852 -0.25398865 -0.16460794
0.22939049 -0.24355027 -0.15416953
0.22939049 -0.25398865 -0.15877473
0.21895206 -0.24339673 -0.15677914
0.22923698 -0.24339673 -0.15416953
0.20836015 -0.25107202 -0.16460794
0.20836015 -0.24339673 -0.16046327
0.19792177 -0.24339673 -0.16384041
0.19792177 -0.24477831 -0.16460794
0.19577268 -0.24339673 -0.16460794
-0.23342992 -0.24708089 -0.16460794
-0.22621512 -0.24339673 -0.16460794
-0.23342992 -0.24339673 -0.1629194
-0.24402183 -0.24339673 -0.15984926
-0.24402183 -0.25230008 -0.16460794
-0.25446022 -0.24339673 -0.15478358
-0.26505214 -0.24339673 -0.15463006
-0.27549055 -0.24339673 -0.15846771
-0.27610457 -0.25398865 -0.16460794
-0.28500792 -0.24339673 -0.16460794
0.33715165 -0.24339673 -0.16460794
0.33469555 -0.24201518 -0.15416953
0.33730516 -0.23280486 -0.15416953
0.33469555 -0.24201518 -0.15416953
0.3389937 -0.23280486 -0.16460794
0.33730516 -0.23280486 -0.15416953
0.33469555 -0.24339673 -0.15539759
0.22923698 -0.24339673 -0.15416953
0.20836015 -0.23280486 -0.15555111
0.19792177 -0.23280486 -0.15862122
0.18732984 -0.23756349 -0.16460794
0.18732984 -0.23280486 -0.16215184
0.17796598 -0.23280486 -0.16460794
-0.21239959 -0.23495394 -0.16460794
-0.20257522 -0.23280486 -0.16460794
-0.21239959 -0.23280486 -0.1636869
-0.22299153 -0.23280486 -0.1607703
-0.22299153 -0.24170816 -0.16460794
-0.23342992 -0.23280486 -0.15785366
-0.24402183 -0.23280486 -0.15416953
-0.28608245 -0.23280486 -0.15923524
-0.28608245 -0.24216872 -0.16460794
-0.28608245 -0.24216872 -0.16460794
-0.28608245 -0.24216872 -0.16460794
-0.28608245 -0.23280486 -0.15923524
-0.29099464 -0.23280486 -0.16460794
-0.28608245 -0.24216872 -0.16460794
0.33930072 -0.22236642 -0.16460794
0.19792177 -0.22236642 -0.15416953
0.18732984 -0.22236642 -0.15708616
0.17689145 -0.23219082 -0.16460794
